# 3D point list with one line of data per point:
#   POINT3D_ID, X, Y, Z, R, G, B, ERROR, TRACK[] as (IMAGE_ID, POINT2D_IDX)
# Number of points: 366, mean track length: 4.7500826173165898
7575 -18.505534645305495 -9.9314323651330945 5.1526475634540194 47 57 33 0.045466700067494925 67 4580 66 4547
7576 -10.846023623629133 -9.5058750257100879 5.1060414406386725 19 28 7 0.64148416508552208 67 4652 66 4571 65 942 64 864 63 805 62 680 60 534
7577 -8.9761863520570611 -9.3000203544829461 5.0202297399375189 67 83 60 0.16788246130006448 67 7045 66 4573 63 808
7578 -5.4847376638607743 -9.5277297860254144 5.1196447781759424 65 77 55 0.30264124032284218 67 4669 66 4576 65 4413 64 877 63 819
7580 14.251078653580169 -11.970322857796456 6.1209406042233594 128 135 133 0.33262207698617741 68 4602 66 4594 64 4136 63 832
7581 -41.107605468919573 -10.027986681893747 6.5371519130769 91 92 89 0.48316715746389843 67 8438 66 4614 65 4447 64 4158 63 3799 62 738
7582 -38.263743059324298 -9.5127278667694384 6.4833445276226875 70 69 83 0.88068591022804976 67 4711 66 4615 65 4450 64 6054 63 5645 46 5849 62 5266 61 5664 60 6818 59 6726
7585 18.236284097653531 -10.993325772063995 5.9825957215057528 150 142 132 0.60718585586012908 69 4717 66 4653 71 1116 65 984
7586 18.236284097653524 -10.993325772063992 5.982595721505751 150 142 132 0.60718585586008589 69 4718 71 1117 66 4654 65 985
7587 -39.875992669624047 -8.0246296084061388 6.5294263196737514 24 26 23 0.26297001943417142 67 4766 66 4667 65 1091 64 1006 61 697
7588 -39.875992669624047 -8.0246296084061388 6.5294263196737514 24 26 23 0.26297001943417142 67 4767 66 4668 65 1090 64 1007 61 696
7589 -39.217637235570074 -8.8458218634913202 6.551967828487002 102 106 105 0.62811359492221508 67 4712 66 4669 65 1015 60 653
7590 -8.4496265581774939 -7.796328618827725 4.9140872750504681 23 37 12 0.242789396494348 67 4729 66 4684 65 4460 64 4177
7591 -1.0361003741615766 -7.8658939508889318 5.3400640946804696 53 63 54 0.82688287128794868 67 4800 66 4692 65 1115 64 1048
7592 10.974210795538495 -10.375290147263035 6.5485799092311465 75 70 67 0.48474204504439672 71 8973 66 4707 65 4476 64 4190 63 3828 61 661
7593 18.199699419958808 -10.098320232988131 6.3768766839322053 32 26 27 0.33023835039846305 69 7265 66 4708 64 968 63 1008
7594 18.212303902704775 -10.107718367121908 6.3804549752444677 32 26 27 0.32279881155177576 69 7264 66 4709 64 969
7595 18.603375384288089 -10.447617293522097 6.1674442175081499 87 71 72 0.54451015710507611 69 4754 71 7199 66 4712 65 1067 64 973 63 908 62 783 60 627
7596 -39.64368838649596 -7.2800651288619598 6.5209604550222773 29 31 28 0.32968080328232013 67 4768 66 4728 65 4507 64 4264 63 1035 62 897 61 698 60 746
7597 -38.236115840439538 -7.4081063637192015 6.5067049586275454 99 104 100 0.41882666108645972 67 4770 66 4732 63 1042
7598 -37.693809645568159 -7.4876058018552145 6.4929786770374465 89 94 90 0.37238100880136782 67 4773 66 4733 64 1011 63 1043 62 900
7599 -35.964926295506778 -7.4181847237006 6.5153397314405801 40 39 37 0.60748243962388315 67 7087 66 4735 65 4508 64 1017 63 1045
7600 -9.2318772282051906 -6.5659415923562721 5.1672041546098475 42 51 30 0.18383153515533171 67 4854 66 4741 65 4518 63 962 62 820
7601 -3.9586755135897898 -6.2639859720411666 4.601217641952176 53 62 34 0.58545454996419399 68 7031 66 4755 62 831 63 967 61 652
7602 13.471261730918828 -9.2549059812465959 6.5895073665251109 81 71 69 1.464842345197507 70 3646 66 4785 65 4537 61 769
7603 -40.494194645125397 -6.1812801774807022 6.5589882764858212 22 32 24 0.43687765627021641 67 4844 66 4802 65 1173 64 1106
7604 -3.1549459233090542 -5.2872975134148223 4.7179848351358853 37 51 28 0.79108715160749643 67 4952 66 4836 63 1073
7605 1.8738529850887387 -6.4803792395843214 5.6560329185815927 22 28 18 0.48581962802423384 67 4875 66 4847 65 4588 64 1151
7606 21.453227219977194 -7.0526680743328036 6.5415201611295721 70 62 59 0.44060219923024752 70 3752 66 4859 65 4609
7607 25.110280918310423 -7.1179996900795821 6.4740894743604525 61 55 55 0.61873852680320041 67 4989 70 1106 71 7355 66 4860
7608 -40.118721479416912 -4.6636461226501167 6.5244899288625859 80 87 80 0.49995215808418608 67 4914 66 4868 64 1188 63 3958 61 902 60 848 59 844
7610 -37.272152440339802 -4.2919243800617126 6.5057584088285347 59 70 62 0.50564436846399108 67 7200 68 7121 66 4872 65 4625 64 4331 63 3960 62 992 61 3875 59 848
7611 -36.317297973653581 -3.8639131497025136 6.4878788358108856 78 89 83 0.31884586532211467 67 5007 66 4873 65 4626 64 4382 62 1080
7612 -36.194587253901403 -3.8610267103526867 6.4682603773012621 78 89 83 0.30126198928031545 67 5006 66 4874 64 4381
7613 -31.682422823635186 -4.0014376385243802 6.540772567654745 26 31 27 0.3572449142652242 67 5011 66 4879 65 4631 64 4387 63 1228 62 1085 61 904 59 859
7614 17.550262496337602 -6.0546269566658628 6.5479902125162077 60 72 96 0.43055321481683834 70 3782 71 7395 66 4906 63 1173 62 1030 61 936 60 886 59 884
7615 18.980109765935563 -6.5638990909988371 6.5151836846283135 216 209 217 0.48222846485003307 70 3750 66 4909 65 1340 64 1254 63 1174 61 864 59 797
7616 23.486828519247126 -5.0554113641106646 5.0632042892860589 32 51 21 0.45108120725293965 68 7204 70 3792 66 4914 65 4660 64 4370
7617 -36.312576003977526 -2.1495418409889546 6.5223922490151267 86 91 87 0.5034788229787589 68 4952 66 4925 65 4744 62 1173 64 1410 61 1004
7618 -35.387876700663654 -2.508997056687825 6.4987468962931709 88 93 89 0.25423810536115304 67 5078 66 4927 65 4671 64 1297 64 4383 61 1003 60 934 59 932
7619 -33.312815591547896 -2.1000759249218151 6.5369923897625881 39 44 38 0.17667668434437056 67 5079 66 4928 65 4745
7620 -31.90406168622787 -3.2265643955348522 6.50623264425563 87 92 88 0.42438688514647815 67 5082 66 4929 65 4673 63 1231 62 1089 60 939 59 938
7621 -31.454541078450781 -3.2854473782527687 6.5118866186598048 92 97 93 0.34445775735302775 67 5085 66 4932 65 4674 68 4877 61 1009
7622 21.085622494880521 -4.9863828222278483 6.5240756687554056 220 208 210 1.5443368223836653 69 7466 66 4960 65 6706 66 7051 62 1126 61 946 60 888 60 892 59 894
7623 22.432482819838352 -3.570877836527762 4.9655541204238345 35 46 16 0.57250818368081158 67 5137 68 5011 70 3921 66 4974 71 7568 64 1383
7624 22.667634830303125 -3.5877494505613869 5.0087684383853821 35 46 16 0.57863116243380963 67 5138 68 5010 70 3922 66 4975 64 1382 63 1288
7625 25.77115125875909 -3.8866549458242408 5.0509796543354009 28 45 13 0.6858594034005594 67 7273 70 5489 66 4982 65 4733 64 4429 63 4041 62 3653 61 3921 59 3710
7626 -33.472689171615613 -0.77162261636713447 6.5017484125049014 43 50 43 0.43670538224099609 68 5034 66 4992 65 1473 64 1508 63 1429 62 1176 61 1109
7627 -33.496306130373043 -0.76617621674990299 6.5053947814102449 43 50 43 0.41976523158832302 68 5035 66 4993 64 1509 62 1175 61 1108
7628 3.7195527997459692 -2.0741109791614831 6.3380004631595437 121 124 113 0.37044279502263666 67 5178 66 5012 65 6747 64 4452
7630 -24.80056005900612 0.048668859259592301 6.5433143787138848 100 102 99 0.11675631814913558 67 5242 66 5064 64 1531 63 1448
7631 6.0359113879098443 -1.4169597055831338 5.1199070486472236 85 94 77 0.28372908100806193 67 5268 66 5077 65 1653 64 1560
7632 11.494158689884523 -1.4027729718965951 6.6246726041978983 136 132 129 0.41006012366902211 67 5275 68 7336 66 5081 65 4837 64 4520
7633 14.573562226359261 -1.1251685907903823 5.2793199125369865 198 212 199 0.33072842926716767 69 7657 70 5582 66 5088 65 4842 67 7337 68 7406
7634 15.0954141440578 -1.0296662824606069 5.1160108119906633 43 59 31 0.20134434448628011 70 4047 66 5090 65 1672
7635 15.339944231298974 -1.0837740760290782 4.9197178201603489 83 100 68 0.40359788896460852 67 5380 68 5233 69 7659 66 5091 70 5585 65 4844 64 4532
7636 15.341878119327404 -1.0880068589948586 4.9195371223807003 83 100 68 0.26034128626761993 69 7660 66 5092 65 4845 64 4531
7638 -33.40923941546135 1.1283143209007829 6.2839740043197256 21 22 26 0.60872859095968057 67 5325 66 5133 64 4564
7639 -26.353115688911707 1.1177001421696069 6.5176891796494436 79 84 78 0.42531241780413398 69 7616 66 5141 64 1654 65 1763 63 1557 62 1365 61 1225
7640 -23.702808438431791 1.3203903177111553 6.574066460236855 74 80 76 0.27910038134842402 67 5337 66 5147 65 4894
7641 -6.4444602365167745 0.069511552750227204 5.0910250655357094 79 83 69 0.14541935968306324 67 5341 66 5150 65 4899
7642 -6.1635903797617555 0.4274309402315033 5.0675208797997504 66 77 55 0.35140491555601622 67 7363 66 5152 65 4902 64 4577 62 1279
7643 -2.0540796855362822 -0.35442770386483968 4.5511831687828659 63 81 57 0.34472560224359644 67 7368 66 5160 65 4911
7644 -2.0531083698921018 -0.36139387636163711 4.5480831005424882 63 81 57 0.32203383993037438 67 7369 66 5161 64 4585
7646 23.695222125994984 -0.8065771135785289 4.8806648214202939 94 108 85 0.33580634359046002 70 4147 66 5215 64 1747 65 1870 63 1528
7647 25.794597178369063 -0.66480941521995029 4.9142310551518644 14 28 4 1.2015228202906569 70 5628 66 5220 64 4626 63 4188
7648 26.966734961315225 -0.5733212901370065 4.9968177839849641 30 46 19 0.88338007615542469 70 5665 66 5222 65 6861 64 6362
7649 -30.195829980437637 2.6935508562032671 6.2983472404524941 86 94 72 0.40140035052813772 67 5425 68 7436 66 5239 65 4975
7650 -18.016981496864982 3.3767257762683669 6.6435066052076914 167 162 158 0.35299076554605019 67 7417 66 5247 65 1930
7651 -2.3918598242304521 0.90168032551525013 4.6684633847825214 99 121 83 0.32553895982109954 67 7421 66 5250 65 4992
7652 6.6716383800417924 1.0964691010844481 5.3637135727209184 60 72 38 0.071964014482773231 67 5460 66 5263
7653 16.193639497421302 0.69349049431614584 4.9694043711335469 36 52 26 0.84204643857248473 69 7813 66 5279 71 7954
7654 20.539520831681497 0.9482551476232447 4.9332966541717029 75 90 59 0.39494908684929486 71 8033 66 5288
7655 21.318317665401256 -0.088924971773400072 5.0280142768175082 66 74 50 0.39060740714592934 70 4224 66 5289 71 9362
7656 22.682511687674818 -0.11151589072759624 4.9423519311171296 39 49 24 0.24960516070855332 67 5500 69 7825 66 5293 65 4949
7657 -33.331211519714699 4.4149736644275421 5.6991722867080377 113 111 122 1.3742772426269549 67 7500 66 5316 64 1914
7658 -24.219121850393329 4.7673096922659566 6.5335403647713237 87 97 89 0.29888843463967341 67 5538 66 5332 64 1926 63 1815 62 1567
7659 -24.219121850393329 4.7673096922659566 6.5335403647713237 87 97 89 0.29888843463967341 67 5537 66 5333 64 1927 63 1814 62 1566
7660 -23.903858794393773 3.9833805467377417 6.5436883389609592 91 102 96 0.30841155306073048 71 9336 66 5334 65 5074 63 1690 61 1461 60 1284 59 1253
7661 -17.501520381253385 4.486708677011535 6.624715652794122 161 152 153 0.68138158346283872 70 1897 66 5341 62 1570 59 1372
7662 -1.9487715529747913 2.9739228264084101 5.5573921462535454 134 135 127 0.42920777744455113 67 5548 66 5348 64 1942
7663 4.821770731823622 2.7420895668991769 5.570960715682431 136 139 124 0.32852036037170246 67 5554 66 5353 65 2107
7664 5.0154960329948217 2.7144091795178449 5.5444870049606143 78 87 58 0.35453521614546102 67 5555 66 5354 65 2108 64 1953
7665 8.3731985206130126 1.9652488453768191 5.1773857631856188 78 99 61 0.5934581145906398 67 7477 66 5365 65 5100 64 4681
7666 9.4180369472516663 1.9262486066493529 5.216832969764285 62 82 45 0.53740421479118661 67 7478 66 5367 65 5102 63 4304 62 3855 61 1258 60 1201
7667 14.627276367097384 1.2852731041626533 4.9496876777557866 35 50 21 0.32573672666406628 67 5574 68 5435 66 5374 65 5019 64 1835 63 1729
7668 15.382605614727588 1.3989048536716031 4.9248068375739349 16 30 5 0.59900050935314675 67 5580 68 5442 66 5377 65 5022 64 1843 71 9447 62 1411
7669 16.974286499376902 2.1307334558527313 5.0487938356654603 16 23 7 0.31472717035550707 67 5667 68 7564 66 5379 64 1981
7670 17.456211195263425 1.2622918356519583 4.8431746252837309 38 50 26 0.28192271863378393 67 5586 68 7565 66 5381 65 5032
7671 18.574227732824244 1.6950243463180652 4.8929340604804992 34 48 22 0.78260250391089747 70 5750 66 5383 71 9489 60 1223
7672 18.599034512573574 1.6953900192959481 4.8965379675496692 34 48 22 1.1406341637201194 70 5749 71 9488 66 5384 60 1224 59 1200
7673 20.289507980184172 1.7886399126771384 4.965168355793744 23 32 11 0.16531333990636402 68 7573 66 5386 64 1996
7674 -34.164149577495749 5.7267908145931816 5.7329560485052644 114 123 140 0.34361350551971265 67 5710 66 5401 65 5150
7675 -16.99522972349741 5.2856613615476906 6.5963316460215333 247 238 238 0.62524078274309136 67 2379 66 5412 65 5166 64 1935 63 1822 62 1571 59 1373
7676 -1.7083783222725002 3.3544481890557996 5.4791047342851344 78 78 70 0.21921368765435761 67 5644 66 5424 65 2094 64 1944 63 1835
7677 3.7893354002212942 4.4260216576967872 5.5358249721819037 108 111 94 0.24000538676761243 67 7572 66 5429 65 5173 64 4837
7678 16.145740236898078 2.7272363594461084 4.8666497072029351 34 50 24 0.1777533511061832 68 7618 66 5447 63 1857 62 1506
7679 22.468962043611221 2.0280455591170612 4.9493293657050561 25 35 11 0.3906753050332436 67 5691 68 7574 66 5459 65 5124 64 4789 63 1765 62 3940 61 4106 60 1230 59 3890
7680 -31.502052429710247 5.6018216983282327 5.5467264617194587 120 120 132 0.46388671168787465 67 5711 66 5477 65 2210 64 2054
7681 -20.165984399105728 7.506916502331328 6.5980467792091542 88 49 41 0.3802583051782743 67 5723 66 5490 65 2370 63 1940 62 1693
7683 13.655376342850275 4.7207196769311421 5.1578308264579675 27 43 17 0.73595484007575718 67 7645 70 4548 66 5522 71 8280 65 5274
7684 14.068563912432062 4.5164786412395177 5.1900593075788901 17 29 9 0.3371915886133825 69 8048 66 5525 65 5271 64 4851
7685 19.867741461276147 3.1859332804715708 4.9211504778335211 28 42 19 0.66121785970799329 67 7588 68 7676 66 5542 65 5189
7686 19.910004593355382 3.5039921376454641 4.8425243145792196 64 78 55 0.42511363803002339 70 4562 66 5544 64 2133
7687 20.852840724701615 3.8941493005300871 4.8618546236355167 34 49 20 0.28240721993905549 67 7659 68 7738 66 5547 65 5293
7689 -25.194917949934954 6.3740743468953713 5.054012801620801 233 233 241 0.35933341629343429 67 7603 66 5591 63 2062
7690 -11.981952546143242 8.6243205711594637 6.6124464262212284 215 199 200 0.19978314680983994 69 8026 70 5852 66 5609 64 2243 63 2087
7691 -9.5384273646347228 8.5580073628685316 6.6450266856809215 77 64 56 1.0006606326193099 67 7619 66 5613 65 5368 64 2247 70 2317 69 5927 62 1830 61 1763 60 1613
7692 -10.037498210850588 8.9229047457971049 6.6626446425062031 127 114 106 0.31633882565728022 68 7705 66 5616 63 2092 62 1831 61 1762
7693 4.4239043156392182 5.5881910634198171 5.4121183422144359 120 134 101 0.35482292546830818 68 7709 66 5618 65 5251
7695 27.073721375306036 4.6394491346963882 4.8232132171208937 84 99 67 0.1631505944377922 68 7817 69 8204 66 5650
7696 -20.06409238983197 8.6119849565692821 5.5601843924233485 251 250 254 1.9839168272072054 71 10411 66 5675 63 2214
7697 -16.041039409371773 10.497630783150045 6.5431082557467271 202 173 177 0.66639101237276133 69 10135 66 5676 62 1933
7698 -4.2066376606945299 10.239164230692973 6.6673438906611162 64 62 71 0.28553190250449806 67 7766 66 5687 64 2380
7699 6.6200433607523053 6.5144478294142472 5.0189603761276347 190 197 187 0.94551706612100617 69 8173 66 5697 70 4685 71 9650 65 5467 67 6010
7700 9.2289103468083482 6.86129265980819 5.2751464597828406 74 94 59 0.27287287800229726 67 6012 66 5698 65 2686
7701 21.28300651181311 6.3014025041850061 5.156407806901715 47 54 37 0.40708117050186737 67 7798 68 7797 66 5717 65 5486 69 8189 64 2413
7702 21.289847298150779 5.9444202356948699 4.9527703860236008 54 63 44 0.76256388418387988 70 4765 71 9694 66 5719
7703 23.35883036118129 5.303698930293927 4.7966819164956345 71 85 52 0.36041249955370064 67 6043 68 7808 66 5726
7704 26.219949803514783 4.9074780656556882 4.8106762522308326 25 34 10 0.20278729359155476 67 5959 68 5979 66 5734 65 5418 64 2318
7705 27.298358246030173 5.357879941427738 4.8156439484993774 56 66 44 0.48101451553471736 68 6051 66 5737 65 2625
7706 27.612422734780008 5.0492609863320936 4.7957884666873154 92 108 72 0.84071749970854392 67 7741 68 5986 66 5741 69 8210 65 5429 64 5037 63 2154 62 1744 59 1440
7707 -33.473405412438254 9.7934258709658124 5.6104280197290466 14 16 30 0.68127928278835237 67 5974 66 5755 64 2451
7708 -29.619965678157374 10.475238732184671 5.5776488678735996 102 103 108 0.40569565712845151 67 6063 68 7824 66 5757
7709 -28.081434268905166 10.130019087367995 5.4390733052152402 88 91 106 0.46116779424395721 67 6065 66 5758 59 1721
7710 -28.081434268905166 10.130019087367995 5.4390733052152402 88 91 106 0.46116779424395721 67 6066 66 5759 59 1722
7711 -3.1391171561017432 10.968040503916386 6.6311271613641072 57 51 50 0.44263736319747038 69 8169 70 4674 71 9606 66 5776 61 1874
7712 3.952935496857596 7.9757909335962829 5.3633936159370696 73 82 63 0.25641703616862849 67 6007 66 5779 65 7168 64 5076
7713 7.7040467264931012 7.2020460735123288 5.1060348972311242 99 121 86 0.50458230851345642 67 7773 66 5785 65 5469 64 5004
7715 13.491946037432015 7.0783472217897829 5.0601387003720326 65 75 51 0.13193833751599773 67 6021 66 5793 65 2697 64 2492
7716 15.463791471720945 6.2682589791697545 4.6682555916291273 93 111 68 0.50721876597608417 67 6103 66 5806 65 2709
7717 20.744595358159764 7.3556393286925283 5.2876645652069074 25 29 15 0.27701731267012336 68 6035 66 5808 64 2509
7718 23.488754054905069 6.8606511586609953 4.742746707884101 76 88 54 0.34748376256067054 67 6121 68 6111 66 5819
7719 -30.991819737823558 11.692314422719402 5.5908674431851475 124 124 134 0.82843826386529595 67 7858 66 5830 62 4279
7720 -21.206497230805503 11.023134416808912 5.6290095564877234 178 178 178 0.62979071830905808 69 8267 66 5833
7721 12.670167337918938 7.0524026742050285 4.5829765360627226 101 125 65 0.19204728299302887 68 7960 66 5860 64 2495
7722 13.924201259561272 7.4096697552891211 4.6252998557255705 45 63 22 1.1872045686632786 70 6098 66 5862 65 7235
7723 -24.243526230781871 11.84051311720582 5.4943248517403891 85 85 100 0.19909090342868438 67 6144 66 5895 65 5584
7724 -21.37232206367872 11.954543127820855 5.6817903653389665 176 176 178 0.79786568815634562 70 4784 66 5900 65 2880
7725 7.1395992232415324 14.617640491743362 6.6162503049019605 109 107 108 0.32550108353388951 68 3438 66 5933 63 2581 62 2145 61 2073 60 1945 59 1936
7726 7.1373107056417808 14.624254591608178 6.6189711968951608 109 107 108 0.31281726196552684 68 3439 66 5934 61 2074 59 1937
7727 9.241461748747092 14.166916184205569 6.5930579673502052 130 128 129 0.35839450780961934 67 6238 66 5936 65 5676 64 5220
7728 10.039070746360069 11.691549757508815 5.578733872545695 130 135 115 0.32917971763135823 67 7958 66 5942 65 5680 64 5221
7729 13.298493799904641 8.8178240201174596 4.5955110989236641 33 53 16 0.41789221550488542 67 3420 66 5953 65 5689
7730 14.0853465148276 7.9414566741370018 4.4499754330485661 76 95 50 0.58822571464595486 67 6253 66 5955 65 2939
7731 23.912461696002069 9.0158602689172778 4.7958466263412607 26 36 11 0.44000467515351743 70 6179 66 5982 65 5705
7733 -21.813741381098257 13.621229633375597 5.5591238393243412 248 250 255 0.38982977087565146 67 6306 66 6004 65 3128 64 2822
7734 -18.616167331417522 16.009639348080313 6.5491602452745576 117 119 122 0.22193169322278283 68 7983 66 6011 65 5653
7735 -7.469589309239332 13.998662095154545 5.9776963546895603 119 127 112 0.35565340088886205 67 6326 69 6510 66 6023 65 5662 64 2844 63 2571 62 2135
7736 -7.6215723197965293 14.526833412979334 5.9441046472090227 52 60 44 0.3022520318617401 67 7991 66 6025 65 5735 64 5290 62 2235
7737 -4.8559193162818755 14.066809178413836 5.830187481753466 83 105 70 0.66662753662013552 67 6328 66 6028 65 3154 64 2850
7738 -3.8766239263979179 13.646783503722787 5.7863105607896586 77 98 65 0.43266569801259713 67 6330 66 6029 65 3155
7739 8.6089823371969292 12.116100499334783 5.4912348380976992 72 74 63 0.3808117779596083 68 8071 66 6036 65 5679 64 5298 63 2585 62 2148 61 2075 59 1839
7740 10.53919208746578 11.659088052494381 5.2930854423556477 96 105 78 0.15581102274898839 67 7999 66 6045 65 5681 64 5303
7742 3.0663498791829555 17.526043642831521 6.6307505844106176 134 130 127 0.91926140923844002 69 8539 70 5050 66 6134 62 2322 61 2282 59 2036
7743 12.982318708491752 9.4714846432473667 4.437987755232264 100 118 71 0.84730325364050729 67 6429 66 6146 65 3178 64 2872 63 2595 62 2070
7744 -19.505145782381511 19.299890299306803 6.5355363012514864 74 64 62 0.35492560174410592 67 6477 66 6188 65 5845 64 3028 63 2760
7745 -5.5276404192841859 15.515905284719572 5.4865631867250819 66 89 47 0.62797577916301761 67 8105 66 6203 65 5865 64 5434 63 4945 62 2310 61 2273
7746 14.229031943172279 11.372068332351674 4.4878890210652296 94 110 71 0.73235453467008593 67 6607 66 6217 65 5808
7747 15.595539096900193 10.079498038673302 4.2083321428719946 58 72 31 0.46101284394104614 67 6532 66 6221 65 5814
7748 15.595539096900193 10.079498038673302 4.2083321428719946 58 72 31 0.46101284394104614 67 6531 66 6222 65 5813
7749 -23.873888819723987 17.169189600002326 5.5439198578465323 104 118 131 0.38425751527770097 67 6553 66 6247 65 5843 63 2866
7750 -21.55822361401648 21.431072739998342 6.6685284846413495 14 16 15 0.064420483991498065 67 6558 66 6250 64 3114
7751 -17.468001201784961 21.467495180094389 6.6140241020371588 209 214 214 0.32949588358793308 67 6564 66 6253 65 5950 60 2200
7752 -3.7256928775240046 15.670994477676922 5.5129577393941904 162 171 170 0.45463418821163559 67 6501 66 6262 63 2773 62 2311 60 2024
7753 2.7664195711635671 19.447990449715306 6.6004130133521874 99 86 82 0.37704718453312486 67 6508 66 6269 63 2898 62 2440
7754 4.3388018129047543 20.436472366157901 6.6021273356589685 190 183 182 0.64029073169729334 67 6596 66 6271 63 2902 62 2514 61 2486 60 2224
7755 4.5655341204746733 20.045740908512141 6.4957439196884446 56 54 65 0.88338411628462721 67 6597 66 6272 65 5974 64 5518 63 5032 62 4640 61 4867 60 4672
7756 14.870628360104272 12.059338301182812 4.5411819517181717 64 78 52 0.16866616896205402 67 8179 66 6276 65 5901
7757 -21.850550299566834 17.752012202418534 5.5121331199180448 20 27 38 0.46540589288945206 67 6641 66 6310 65 3494
7758 -21.850550299566834 17.752012202418534 5.5121331199180448 20 27 38 0.46540589288945206 67 6642 66 6311 65 3495
7759 -21.708753856925856 17.892669679937359 5.5143247444653891 250 254 255 0.40734004063029877 67 8200 66 6312 65 5935 62 2408 61 2362 60 2196
7760 -22.419731036023371 22.378720914042919 6.6284650146821491 157 158 163 0.21387509519259296 67 6647 66 6315 65 5943 64 5578 63 5082 61 2465 60 2283 59 2221
7761 -22.436967550371268 22.39394517046194 6.6331191027450611 157 158 163 0.10063715090682616 67 6648 66 6316 65 5944
7762 -21.064063887041186 21.96016378904249 6.6521614066798911 65 67 64 0.20486091549996957 67 8149 66 6317 65 5945 64 5481
7763 5.4947626374491012 21.564050365184265 6.6113218490656971 154 158 174 0.23761248159575332 67 6670 66 6346 64 3306 63 3010 62 2516 59 2253
7764 8.0126047624006187 20.141511804911936 6.4791273280905397 27 41 53 0.5243537209386846 67 8172 66 6347 65 5976 64 5522
7765 12.70569370174462 21.182036569522253 6.5973456772339159 118 116 117 0.36787065934876795 67 6674 66 6349 60 2331
7766 -39.841990009807972 -23.111424350511619 6.4199246559943539 11 13 25 0.40614841256466 67 6706 66 6501 65 6228 64 3749 63 5435 46 87 60 62 59 3250
7767 -39.409102598539313 -23.223255919623757 6.4501710018023273 11 15 27 0.50973078966827512 67 6707 66 6502 65 6229 62 5040 60 3255 59 5250
7768 -37.968295351749695 -23.625220191799855 6.4473518972208312 7 15 38 0.50317242884573665 67 6708 66 6503 65 6230 62 3125 61 3384
7769 -13.044758848664515 -17.573613543720125 4.8591340556073481 18 30 8 0.39091344241081044 67 6717 66 6512 65 6244 64 5870 63 5470 62 3136 59 163
7770 -3.9928318496088782 -18.048293282845595 4.9159160131485669 23 43 8 0.71797202923773984 67 8258 66 6521 65 6254 64 5879 63 3500 62 3152 61 3413 60 3283 59 3269
7771 -3.1391572585769669 -18.793028903629448 5.0299508454685675 18 35 2 0.55304774788757705 67 4153 66 6522 65 6256 64 5881 63 5457 62 5056
7772 -0.20466776205520729 -19.523957933873717 5.1582971375503011 55 76 49 0.54818354878936548 67 8262 66 6527 63 5460 60 119 62 203
7773 -27.317384126559578 -21.959157326859824 6.5163314007807749 69 64 61 0.33267130883267371 67 6769 66 6536 65 4020 64 3810 63 5467
7774 -27.317384126559578 -21.959157326859824 6.5163314007807749 69 64 61 0.33267130883267371 67 6768 66 6537 65 4021 64 3809 63 5468
7775 -10.086799331824647 -16.722922884399729 4.8781708773089809 68 84 58 0.3550675148990366 67 8277 66 6547 65 6280 64 3828 60 161
7776 -8.6711536915373593 -17.221103244770784 4.8968371848349506 53 66 46 0.52973195479188295 67 8278 66 6548 65 6282 64 5892
7777 -4.9492592281883114 -18.177124970306114 5.0053199985468106 31 48 14 0.67028820232508191 67 6724 66 6551 65 4046 64 273 63 3498 60 106
7778 -4.2246902844447627 -17.863988813927275 4.8945905388505651 85 101 72 0.66449025042330234 67 6726 66 6552 65 6253 64 3789 63 3499 62 3151 61 3411 60 107
7779 -4.2030473645940649 -17.764842852919156 4.8702269957733231 85 101 72 0.6478816608741067 67 6727 66 6553 65 6252 61 3412 60 108 59 178
7780 -3.3821003910561247 -17.455315573260062 4.8311535058725017 66 86 51 0.35717808447635335 67 8259 66 6557 65 4052 64 3843 62 3153
7781 -2.6233202140641385 -17.373234223352462 4.8346624958501856 70 90 55 0.87855239000418661 67 8282 66 6558 65 6290 64 5898 63 3502 62 3154 61 3417 60 112 59 182
7782 -1.6669699215756244 -17.414497233776082 4.883391276562179 11 30 2 0.32441039611353828 67 6761 66 6561 65 4055 64 3848 63 3506 62 3157 61 3418 60 116
7783 -1.1021978654123177 -17.862741740650936 4.9347284655124977 28 44 18 0.57275422857185998 67 6762 66 6562 65 6291 64 5883 63 5477 62 201 60 3287 59 187
7784 -11.039157114507262 -16.097438916397799 4.9472892511155804 16 33 13 0.41290263495517132 67 8297 66 6575 65 6310 61 3442
7785 -9.7364958176080822 -16.606424324231799 4.9731392763305378 58 67 50 0.72812236312701584 67 8298 66 6577 65 4078 64 3830 62 244 61 170
7786 -3.3537160690288683 -16.240054659761128 4.8026484462334667 36 52 26 0.62219508364198484 67 6786 66 6579 65 4096 64 3846 62 3194 61 3446 59 245
7787 -2.3085290700352403 -15.445072519063036 4.7006343639019361 24 39 16 0.52612605439883975 67 8305 66 6583 65 6316 64 3888 63 5496 62 3199 61 3451 60 180 59 252
7788 25.719435768488719 -18.917415891576038 5.5504422171519767 86 80 82 0.21001143799254732 68 6746 66 6589 64 3897 63 3551 62 284 62 285
7789 -13.412453328298392 -15.610529804226173 4.9974339901528078 19 27 12 0.84648332442268215 68 9262 66 6601 65 6304 64 3870
7790 -13.412453328298392 -15.610529804226173 4.9974339901528078 19 27 12 0.84648332442268215 68 9263 66 6602 65 6305 64 3871
7791 -1.2319522846105706 -15.257670010371109 4.7486838133182081 23 41 17 0.35521596990403281 68 8286 66 6615 64 5915 63 3540
7792 0.58814731732317793 -15.962777502458312 5.0160931173145435 26 41 20 0.40874653248118359 67 6820 66 6618 62 3246 61 3455 60 263
7793 0.59023962743169622 -16.021041951674107 5.0325897147714524 26 41 20 0.3934779899546792 67 6819 66 6619 61 3456 60 264
7795 -17.827962484840107 -13.389931903829311 4.9993921854893051 38 52 26 0.44096487815649477 67 6878 66 6635 65 4174 64 3950 63 3619 62 3264 59 389 60 295
7796 -17.299985604435214 -13.59104826206867 5.0570984692752781 16 30 7 0.39231553184435991 67 6879 66 6638 65 4175
7797 -14.972426029862763 -14.005728325504389 4.9444355800966573 13 28 5 0.27708392421773353 67 6834 66 6639 65 4182 64 3910 63 495 62 400 61 232
7798 -11.850001740928095 -14.032140218338062 5.0035171057573589 52 65 47 0.46585494172459807 67 6838 66 6644 65 4189 64 3956 63 3631 62 3274 61 3486 60 3403 59 315
7799 -10.315923406617427 -14.455173534318748 5.0841219998639673 14 27 9 1.1278908171887914 68 8323 66 6645 65 6367 64 3915
7800 -9.6355721016908227 -14.68194292115404 4.998753982819891 65 80 57 0.58818135795315651 67 6844 66 6647 64 3914 63 3591 62 3237 61 3491 60 238
7801 -3.3104264398698233 -13.446109328771133 4.8185296426334485 26 41 20 0.64255309004373673 67 6853 66 6654 61 3502 62 3281 60 314 59 328
7802 -1.7517677666469189 -13.643136301326136 4.8780480107621038 23 31 16 0.92994950108577501 67 6893 68 6778 66 6655 65 6372 64 3968 63 3642 62 3283 59 3376
7803 1.7460411429057403 -14.101451267329862 5.0397034383260424 30 44 19 0.38677464803241685 67 6897 66 6659 64 3978 65 605 61 3554 60 326 59 342
7804 3.8077435039622851 -16.77314626213925 5.6956859711835985 71 78 70 0.91051085881803373 67 6870 66 6662 65 6353 63 5531 62 3290
7805 7.3342999526877479 -16.771772990922738 5.8825925968713761 86 77 84 0.7677612309655788 69 8700 66 6667 70 6232 71 9854 64 3937 62 3295
7806 -10.936202609591813 -13.450965191939767 5.0820145560028047 45 58 41 0.56249403890294514 69 8682 66 6685 64 3959 59 399
7807 -2.6706679691334729 -13.275958586880934 4.8388216028735265 25 36 19 1.2384030954540151 67 8358 66 6690 61 3545
7808 -1.0476784394256398 -12.693167755409883 4.8814028862738441 24 36 19 0.3705531713928627 67 8362 66 6692 65 6395 64 5962 61 3549 60 3459 59 3418
7809 1.7031796624669946 -13.313601528289137 4.9094892371076835 88 104 75 0.68865913063124773 67 6899 66 6699 65 4279 64 628 63 3648 62 3288 61 3556 60 3421
7810 31.911193143511987 -16.139605957677613 5.5852414806526598 124 140 156 0.79538506439344614 68 8381 69 8726 66 6704 65 6382 64 5967
7811 -11.52030431663685 -12.782153151588945 5.1512893709230756 12 22 11 0.69580205822938013 67 6918 66 6715 63 3675 62 3323 61 5582 59 5349
7812 -3.4449404778846597 -12.405252989195706 4.9085275183330159 24 33 16 0.74739188371962639 68 6834 66 6725 64 4025 65 4264 63 3684 62 508
7813 -2.1596323530573751 -11.911439736350736 4.8373390899173225 21 37 10 0.78932518638498084 67 6926 66 6729 65 4315 68 6835 63 633 62 515 64 709 61 424 60 408
7814 -0.18232883829372856 -12.267698572491181 4.9057474067807654 21 34 16 0.34203685731217259 67 6930 66 6732 64 4029 60 418
7815 0.34462987828116853 -11.836493132937445 4.9913734352519121 26 41 18 0.68717497195332011 67 6982 66 6737 65 6435 64 4030 63 3743 62 3344 61 431 61 3595 60 422 59 496
7816 -15.896081814456691 -10.213110187820188 4.9693438103920178 22 36 13 0.63820680485154568 67 8411 66 6753 60 3494
7817 -13.868562674291947 -11.001319932574512 5.0994472992727173 24 30 16 0.26198226536768499 67 4537 66 6756 65 6456
7818 -12.505616560675501 -10.707059906041509 5.0240515250053974 23 36 18 0.49620423756510795 68 6897 66 6758 65 4357 64 4074
7819 -2.1635711413065586 -11.340190197760842 4.9589354986714493 28 43 22 0.43028287164027823 67 8397 66 6766 65 6430 64 6009 62 3387 61 3592 60 3517
7820 0.80612592306424347 -11.304417304874228 4.9713695439980299 32 50 26 0.40959754314545771 67 6984 66 6768 65 4322 64 4088
7821 4.1137876004920857 -12.245728845550643 5.6796234934525662 57 70 49 0.48307105520948568 67 7028 66 6773 65 6476
7822 13.135089563673782 -13.030957253540425 5.6777366704225694 108 105 114 0.58522806596950017 67 8404 66 6778 63 3752
7823 12.542766339119121 -12.538036329547991 5.461935610939066 108 105 114 0.41805710687166087 67 8405 66 6779
7825 -37.533885968501345 -11.607964982565326 6.5694447315245865 72 66 77 0.46316450081464566 67 7036 66 6787 65 4392 62 3408
7826 4.2371706753692617 -12.119664476029143 6.3598023436790188 3 15 11 0.85589284183258518 67 7051 66 6814 65 4426 63 5631 59 3483
7827 13.447901946979007 -13.041673946973846 6.1380251582989178 139 149 151 0.30431427456452986 68 6925 66 6815 63 3751 62 3432 61 3649
7828 -41.428656474167141 -9.7579057852738131 6.5339137859357912 84 89 85 0.45161013607795403 67 7055 66 6822 65 6512 64 4156
7829 -41.096562751557506 -9.3734348268035657 6.5100388145413417 44 50 46 0.4141380168065491 67 7056 66 6823 65 6513 64 6051 63 5640 62 5262 61 3697 60 3607 59 668
7830 -39.414414001142141 -10.443832012580303 6.4191277503784985 63 65 80 0.61136381670177553 46 3629 66 6824 65 6488 64 6052 63 5642 62 5224 61 5661 60 5519 59 5426
7831 -41.146499813246848 -9.7332209766591085 6.5805281911731202 39 38 36 0.42484381445078578 67 7057 66 6825 65 4448 64 4160
7832 -36.338276022292327 -9.7117607363139591 6.3171527163763521 66 80 95 1.1800623120910765 67 7059 66 6827 62 3444 61 3701 60 3573
7833 -6.7281898365387596 -9.4511728242680491 5.2188724721341355 105 117 97 0.29027342652294685 67 4665 66 6843 65 6496 64 4130
7834 0.13695842822359233 -9.7366598107892841 5.5299110183634097 7 11 4 0.61128829805832174 67 7076 66 6848 65 4424 64 4184 63 896
7835 19.147016127796672 -10.240335710128839 5.7258704195080945 150 120 122 0.56764268728765721 71 8943 66 6853 65 4487 62 3466 61 3685 60 3588
7836 19.30082649924227 -10.36922795459976 5.7792300679109836 150 120 122 1.0342794868035174 68 8474 66 6854 65 4486 62 3467 61 3686 60 3589
7838 -2.0798704866646385 -8.3175875522735225 5.1776369777734619 38 47 26 0.36487346861635078 68 6992 66 6870 65 6525 64 6061 63 5664 62 766 61 654
7839 7.5752186847819489 -10.727743038979195 6.5358372639906843 129 122 120 0.81436951082279274 67 8466 66 6873 60 3585
7840 -38.447193134457116 -7.7241005810345218 6.5162476172768509 101 103 100 0.74857820195681457 67 8473 66 6892 65 6551 64 6079 62 5301 64 7375 61 5704 60 5558 59 5502
7841 -17.477754996707812 -8.3399475551535556 6.4969549256564356 12 15 30 0.284446028356243 67 7091 66 6906 60 665
7842 -17.450510398852593 -7.989291704495896 6.501375640851478 110 109 114 0.64002191734509251 67 7127 66 6907 65 6559 64 6085 62 3557
7843 -16.873676974798663 -7.8260619009205215 6.5298375713809396 70 78 93 0.59988256283572783 67 7128 66 6908 65 4512 64 4225 63 3901 62 3558 61 3764 60 3617 59 3622
7844 5.1188579215771073 -8.4165901809988384 6.5524353736671168 126 121 117 0.15526105795316567 68 8516 66 6921 61 3779
7845 5.6815658366299715 -7.9506054459840891 6.5923096520077253 148 143 140 0.12393503052989852 68 7091 66 6923 59 785
7846 23.711651764353132 -7.8886755391551322 5.7199096107289584 113 98 97 1.1952213241655787 70 5366 66 6935 65 6583 64 4253
7847 -40.037346501145798 -5.6086403692935107 6.562633966664901 76 88 78 0.45790650218649454 67 4913 66 6939 65 1174 64 1187
7848 -34.814678004236129 -6.3040016705372883 6.5174490995500509 98 100 95 0.4120302886004043 68 8500 66 6942 65 6588
7850 -29.349264507353386 -3.1212913779031295 6.5952305504464483 38 38 38 0.35882114136572785 67 8587 66 7024 65 6682 64 6199 63 4005 62 3668 61 1013
7851 -11.169261606171617 -4.1750562879671946 6.5676952671975775 27 40 57 0.44110446413964399 67 7212 66 7032 65 4687 63 4010 62 1106 61 917 60 862 59 867
7852 11.806024877040862 -3.7633429942455319 6.4842404133945353 123 123 125 0.26239529496805392 70 5475 66 7044 63 4025
7854 23.825955129609238 -4.2763141864699863 5.0292541109614133 32 46 10 0.62590477878604167 71 9169 66 7058 65 6713 64 6229 63 5814 62 5367
7855 3.6483917900976426 -2.1244625911828434 6.6480120624193368 48 51 40 1.436002597169945 67 5177 66 7084 65 4760
7856 16.224765259438549 -2.7841228482940177 7.059496210063708 61 73 69 0.84032223109724935 67 8634 71 7549 66 7089 65 6751
7858 -30.50513423655778 -0.28808915713738209 6.5153132982075395 90 97 90 0.42208531097980861 67 8646 66 7117 64 6284 61 4000 62 3785
7859 -27.355438285929608 -0.34742870877166426 6.550625684144336 79 84 80 0.5396841390040451 67 7314 66 7119 64 4493 63 4132 62 3787 61 4001 60 3860
7860 -25.735687905499244 -0.63404564989115342 6.6526294753595101 79 75 72 1.4449458880832071 67 8619 69 9032 70 5493 71 9174 66 7120 65 6782 64 6288 63 4135 62 3788 61 1123
7861 -2.9706466356113683 -1.4547818921732936 4.4943979576979594 70 88 62 0.75662545554870431 67 8652 66 7125 65 4825
7862 -2.4813777912079247 -0.79371362178312799 4.7898302297169124 74 90 63 0.43642958169835339 67 5255 66 7129 65 6788
7863 2.0528794145881615 -1.1244376273965855 6.1262111289411774 45 68 52 0.57791891299014964 67 7327 66 7132 65 6791 64 6296 63 4147
7864 5.8368965584726613 -1.5959662242880279 5.1387254112446241 137 145 136 0.7569649698210551 67 8657 66 7134 63 5841
7865 5.8368965584726613 -1.5959662242880279 5.1387254112446241 137 145 136 0.7569649698210551 67 8656 66 7135 63 5842
7866 14.161566185829349 -1.011764694042089 5.7260438553279007 218 231 241 0.28131358038300847 67 7335 68 8685 66 7143 65 6802 64 4526 63 4162
7867 15.671528622699171 -2.1124362785626629 5.1624215079644538 74 90 54 0.82520992941282378 67 7339 68 8654 71 10183 66 7146 65 6758
7868 -30.073492753567269 1.7422410242699609 6.4877311763207679 64 75 60 0.21711958507973936 67 8677 66 7162 65 6825 64 6332
7869 -25.502225218962753 0.81823435128039834 6.5649796425945102 22 29 22 0.21871824459450173 68 8669 66 7165 60 1170
7870 -5.1533476181936599 0.35051073198337351 4.8146938957088734 127 134 119 0.84862194210130704 67 7365 66 7170 65 4905 64 4579
7871 6.1973956155195422 0.42259217958785267 5.351011543139065 77 93 57 0.44977059764396593 67 8710 66 7181 65 6841
7872 9.7797690918908433 -0.23544126805651033 6.0430776120598075 102 106 89 0.75877627091819944 67 7375 66 7185 65 4919
7873 -4.171187882458061 1.4060791866149209 4.8228288834708337 82 89 69 1.098093684191483 69 9172 66 7216 70 5636 71 9376 65 6886
7874 -4.0704072631459258 1.1920924548973804 4.8886450264273957 82 91 70 0.11502895849379879 67 7420 66 7218 64 6384
7875 -2.8342004207975737 0.60441663755809671 4.7343822914092009 70 88 64 0.43313485538294866 67 8702 66 7219 65 6832 64 6338
7876 4.7697556870126556 1.0190633409577721 5.4097413407957013 155 156 148 0.87413949775655164 68 7456 66 7225 65 6893 64 1687 67 5457
7877 4.8247752947986298 1.2812963532357906 5.3211404310411901 151 153 140 0.80568230247270223 67 8707 66 7226 65 6894 64 6393
7878 7.4257600490236051 1.3404194890171537 5.3615305337494377 57 70 42 0.39336052636332863 67 7427 66 7229 65 6896 64 4676 62 3850 63 5911 61 4085 60 3941
7879 7.5470082595656329 1.3859505289199558 5.4180917727446509 57 70 42 0.27852853484019374 68 7502 66 7230 65 6897
7881 13.693258282646305 0.60335895531894923 5.1153237675302119 26 39 13 0.29418288394081593 67 7429 68 7468 66 7236 65 6904 64 4611
7882 14.252450799164185 0.609727635361061 4.9572149276498489 42 62 25 0.0067926018780254836 71 10267 66 7239
7884 -25.618103567034961 4.7239406093779568 6.5377354070882676 77 82 78 0.33554367236010912 67 8724 66 7261 65 6934 64 6438 63 4357 62 3983 61 4230 60 4069 59 3991
7885 -25.661146090450707 4.7322048878661604 6.5475211555929675 77 82 78 0.23443415314718349 67 8725 66 7262 65 6935 64 6439 62 3982
7886 -0.44190216430873647 3.0910278437826109 5.6833665418893924 129 131 119 0.45398882071732582 67 8737 66 7269 65 6943 64 6449 63 4293
7887 8.1217906644708506 1.9064497859705851 5.2904633600939075 38 58 21 0.26830604083513193 67 7476 66 7277 65 6948
7888 8.778376980837562 1.8004361110985192 5.2747996604151961 54 74 37 0.75016432779264364 67 8745 68 7507 66 7278 65 6900 64 4688
7889 18.29672171836685 1.6886791373267827 4.8792799902860278 27 41 16 0.25966143999670871 67 7487 68 7566 66 7286 65 6961 64 4710
7890 24.668977011386577 0.88205045183194875 4.9194642257892802 56 68 46 0.73233702510506338 70 6603 66 7292 65 6913 64 6408
7891 -31.661742025301958 5.3119685930136669 5.5117528678539669 22 21 37 0.54131184824398193 67 7501 66 7301 65 5152 64 4819 63 4410 62 1558 62 3976 61 1448 60 1370 59 1358
7892 -31.478402955190429 5.0472856705389386 5.5191082088900325 232 230 241 0.37107926604535368 67 7502 66 7302 65 5151 64 4820 63 4351 62 1557 61 1450
7893 -14.960180219350651 6.0679334491523891 6.6243235087105026 10 15 18 0.29363914674768171 67 7513 66 7318 61 4312 60 4136 59 3999
7894 4.1657355282187618 3.2667699403369634 5.3317203365141577 132 140 116 0.64005906866369566 69 9238 66 7326 71 10312 64 4761
7895 6.7619327210550777 2.8856342882392676 5.0760463569745777 42 62 25 0.49353348401152919 67 7530 66 7327 65 5099 64 4766 63 1842
7896 15.423936703961788 2.493820237499798 4.9196628437169165 80 95 66 0.38971854446137577 70 5787 66 7337 64 4776 63 4371 60 1319
7897 25.973240318759327 1.9132148200742938 4.9261096079008544 28 42 16 0.9900326589257028 67 5699 70 6663 66 7350 68 5585
7898 -31.63885283951479 5.8370938312901002 5.59895572254751 33 31 42 0.37246577678490556 67 8801 66 7359 65 7022 64 6485 63 6035 62 3977 60 1371 59 1360
7899 -31.444491862130278 6.1584004599645574 5.6016835545794086 102 105 111 0.91404475047764089 67 5713 66 7360 64 6486 63 4412 62 4040 61 1595 60 1472
7900 -15.32676890346665 7.3298796680242768 6.6354905186614284 139 116 108 0.43804837871385149 67 7567 66 7376 65 5239 64 4910 63 4422 61 1627 60 1493
7901 5.2605922761399553 4.8331851597996698 5.2888863235366959 147 163 127 0.16612918839796359 67 8863 66 7385 65 5252
7902 13.073492758327477 5.0851640844733907 5.5116325107199824 16 26 2 0.21495757587113551 67 7640 66 7394 65 7050
7903 14.023166908449808 4.2856815170905502 5.4654749158927087 23 35 13 0.3772788038995305 67 7580 68 8853 66 7397 65 5180 64 2108
7904 24.434963151209736 3.8065701199980979 4.8838950829410477 40 50 22 0.53287474447714989 68 8891 66 7406 65 7062 64 6525 63 4453 62 4014 61 4270 60 1340 59 1313
7905 26.451994599565481 3.8036498749092984 4.9078643221856932 77 93 57 0.96373527873341736 68 7747 69 8087 66 7407
7906 6.9282434515829721 5.1024558415985473 5.0625210602123074 63 81 41 0.64593526910483046 67 7632 66 7438 65 2412
7907 7.5715515509512281 4.9969899403500211 4.976758283275573 73 94 52 0.21013633706515908 67 7633 66 7439 65 5263
7908 13.297723528810211 5.2337370739796558 5.1762012697219264 25 39 13 0.83949271295106231 71 10918 66 7443 65 7054 64 6570 63 6058
7909 19.947980144142452 5.0101519213242725 4.9839833089654357 40 46 31 0.72420977850403379 67 7720 68 8888 70 5930 66 7448 71 8359 65 7120
7910 26.159718644221623 4.3948740154087034 4.8479347121098799 28 38 14 0.39739950932904949 68 7749 69 9382 66 7460 65 5312 59 1432
7911 -5.0802342649372143 9.6728235368394824 6.6664365332352968 86 89 93 1.1287403064323844 69 10117 66 7485 70 6718 71 10911
7913 8.6151158417080023 6.791563567528371 4.9735465074631922 54 75 34 1.3195340836233302 67 7778 66 7497 64 5005 65 5472
7914 12.163541496331376 6.9884369691342236 5.3079787787818171 67 77 53 0.62517477672694211 68 8919 66 7502 65 7175
7915 21.438647018405891 5.2835181701813676 4.8915226416194084 77 92 62 0.29713314362450866 67 7724 68 7800 66 7507 65 5400
7916 22.781328988109266 5.8141219909148463 4.8445967141323791 51 61 27 0.66200588447261066 67 7806 68 8972 66 7514 65 7190 63 4542 62 4082 61 4344 59 1539
7917 22.452106194438048 6.1326824786462595 4.8667779169473553 42 51 20 0.085762550504904653 67 8940 68 8971 66 7515
7918 25.552037462295424 5.0821307254092751 4.7572018604387001 77 91 56 0.32816070062961483 67 7734 68 7813 66 7519 65 5421 62 1739 61 1674 59 1435
7919 26.520623798021123 5.9159048968022638 4.8321058202361638 25 35 10 0.32768679794849587 67 7809 69 9470 66 7521 65 5497 64 5033
7920 -32.384416518371438 9.609889585249368 5.4830399603187008 85 87 103 0.50523410947476244 67 7746 66 7531 63 4673 62 1917
7921 -30.874879400780564 10.403520280221329 5.5069850369630764 32 40 58 0.84807770504216151 67 7817 66 7533 65 7206 64 2563 63 2316 62 1921 59 1717
7922 -20.16056179076093 8.439963715107627 5.2550953146745973 250 248 251 0.25655618219196574 67 7755 66 7539 65 7143 64 5064
7923 -16.01145546762168 11.773142375082275 6.605286699682221 59 55 52 0.43038055980742496 71 9601 66 7545 65 7214 59 1734
7924 -13.550728699236199 12.170563144756043 6.601584339839679 85 73 58 0.96408458641235717 67 7827 66 7548 65 8227 66 8656 64 6708
7925 6.1025714229500112 9.0224847078307064 5.4454452862164748 138 148 117 0.20481583914237877 67 7835 66 7557 65 7221
7926 8.9893576828113666 8.0213517493649231 5.285869613830509 65 77 53 0.15797599069084375 67 7837 66 7560 65 7173
7927 13.502055111009797 7.8139116560555655 5.0215239410826573 42 56 19 0.42341140497042229 67 8960 66 7562 65 7227 64 5085
7928 13.36287809185578 6.4845831362295723 4.7622886044162458 94 108 71 0.52000993133352902 67 7786 66 7564 65 7180
7929 14.840322992289508 6.2012107002029344 4.5263273812029574 51 69 32 0.66424179370370007 67 8966 66 7568 65 7182
7930 -33.962358748018012 11.210291538383542 5.6394551200487584 143 141 152 1.249878666513295 67 6058 66 7588 65 5510 63 4671
7931 -30.609736809467041 10.757143233382402 5.5339634964075266 62 64 79 0.7053408964236475 67 7821 66 7589 65 5511 64 5124 63 4677 62 2027
7932 -28.652533127268082 10.546803826306954 5.4674579433449466 90 92 107 0.82909451177499593 67 7822 68 8982 66 7590 65 7207 63 7249 67 8948 62 5806 61 4478 60 5997 59 1723
7933 -27.351217768596946 10.652204772720879 5.456670543599671 85 92 109 0.48288801581798335 68 7876 66 7591 63 4678 62 4282 61 4572 59 1724
7934 -27.356403614323472 10.654179221187103 5.4574494692871767 85 92 109 0.55342273315264645 68 7877 66 7592 63 4679 62 4283 59 1725
7935 -9.4314436787768106 12.16958638495605 6.3557043219056766 23 35 12 0.55935774260970472 68 8992 66 7599 65 7218 64 6711 61 6149
7936 12.783865308088529 7.7342326428456767 4.7333756292779867 61 80 25 0.24206659065367991 67 7891 66 7605 65 7230 64 2619
7937 27.870013363706914 7.3705167267579741 4.8057062916082707 19 38 10 1.1430029652941203 67 7922 68 7979 66 7618 65 7247 64 6692 63 6241 62 5785 61 6074 60 5969 59 5878
7938 -27.862945030161274 11.593471283981128 5.51790256723267 131 143 157 0.24531166566911697 67 7861 66 7623 65 7258
7939 -14.547997523294962 12.782210693497923 5.7143049774374797 124 130 102 0.29995956642420224 67 6210 66 7631 65 7302 64 6757 63 2560 62 4354
7940 -12.481983229715198 14.085966351498094 6.5365608110373303 164 166 163 0.1543906250402487 67 7873 66 7635 65 7265 64 6760
7941 11.764820384202588 10.794146718215178 5.5349220119735962 55 58 31 0.34987098322746679 67 7959 66 7649 65 7279 64 5224
7942 12.269820309635099 9.7463791647294755 4.9139876592230918 50 66 34 0.19237883743001438 67 9021 66 7653 65 7313
7943 12.274477036640473 9.0163423391752762 4.6561792733135912 51 69 31 0.2817506776488381 68 9114 66 7654 64 5231 65 7314
7944 15.310131986550434 8.7374011142208072 4.6047802258491348 81 89 68 0.12041580402447587 67 7964 66 7660 65 5692
7945 18.426580255652055 8.173774093130902 4.5037420937313009 57 80 34 1.0515246278535253 67 9030 66 7667 65 7286 63 4722 64 6735
7946 19.618667814164333 8.5781155799221693 4.6237239562483801 78 95 59 0.76399965508970125 68 9118 66 7668 65 7328
7947 -18.556908145130389 15.915808833385674 6.5970894145918111 15 16 18 0.14648743324279709 67 7935 66 7687 64 5280
7948 -14.605066390946826 13.107720397517356 5.6924831060313039 91 96 73 0.20984061675862589 67 7937 66 7691 65 5654 64 5282
7949 -6.6214833521059235 13.22195370336738 5.9056528306236311 72 81 60 0.22041462367195028 67 7946 66 7699 65 7304 63 2570
7950 13.265765883355471 8.9405037177295625 4.5300915201944862 49 66 32 0.24902354457487297 67 9050 66 7710 65 7319 64 6775
7951 13.329095477737091 8.9874736270302709 4.5471919304642379 49 66 32 0.21988258370176275 67 9051 66 7711 65 7320
7952 13.553602056837704 9.2096709319523331 4.4934283546682554 88 106 64 0.26192186867588707 67 8006 66 7712 64 5237
7953 16.09564565823479 8.7755889995286651 4.4051688716557313 74 94 57 0.63878879268523348 67 8012 66 7716 65 5696 64 5241 63 4780 62 2077
7954 -18.928093757165694 17.3922243483788 6.5846979340728407 127 131 132 0.39969928874499033 67 9037 66 7740 65 7352 64 6844 63 6356 62 5962 61 4759 60 4494 59 4424
7955 2.5763747704235644 16.686544733450837 6.6535210592018066 61 55 65 0.33517884068498005 67 7995 66 7754 64 6814
7957 13.942114731733902 10.329019959731276 4.512430853440458 120 130 95 0.488673818193959 67 8067 66 7767 65 7363 64 6823
7958 14.559249142131955 9.4387562814205079 4.3442982206366363 58 80 33 1.1935309516783825 67 8070 66 7768 65 5751
7959 14.853662894062342 9.7643034201554002 4.2947602280545549 99 121 71 1.4145574237107901 67 8120 66 7769 64 5316
7960 14.980579263638536 9.7186462815392964 4.2722367561687955 69 92 36 0.80269193835864805 67 8122 66 7770 65 7368 64 5317
7961 23.329405432586178 10.953603253470169 4.7819419816334188 31 40 21 0.53640673693965057 67 9102 68 8212 66 7786
7962 -8.3691616963425641 16.463402379563753 5.9634137990612759 54 56 42 0.35653534575304341 67 8102 66 7803 65 5789
7963 13.324630038435705 11.083866605578056 4.635640038367046 48 62 26 0.75666254004709144 67 8118 66 7813 65 5806 64 5375
